# .PCD v.7 - Point Cloud Data file format
VERSION .7
FIELDS x y z rgb
SIZE 4 4 4 1
TYPE F F F F
COUNT 1 1 1 1
WIDTH 1133
HEIGHT 1
VIEWPOINT 0 0 0 1 0 0 0
POINTS 1133
DATA ascii
36112.347656 33855.328125 35907.164062 93
36266.367188 33903.402344 35958.152344 93
36426.289062 33956.710938 36014.691406 93
36583.871094 34007.542969 36068.605469 93
36751.000000 34066.937500 36131.601562 92
36922.757812 34130.281250 36198.785156 93
37091.074219 34190.097656 36262.226562 93
37251.910156 34242.703125 36318.019531 93
37407.949219 34290.621094 36368.839844 92
37562.316406 34336.742188 36417.757812 93
37725.878906 34390.992188 36475.296875 91
37892.339844 34447.582031 36535.312500 91
38053.535156 34499.082031 36589.937500 91
38217.796875 34553.078125 36647.203125 90
38371.148438 34596.937500 36693.718750 90
38527.835938 34643.558594 36743.167969 92
38684.921875 34690.285156 36792.726562 94
38834.437500 34729.984375 36834.832031 93
38982.960938 34768.585938 36875.773438 93
39088.808594 34769.019531 36876.234375 94
39221.632812 34793.382812 36902.074219 93
39398.695312 34856.753906 36969.285156 94
39590.085938 34932.429688 37049.546875 94
39777.660156 35004.339844 37125.816406 94
39975.253906 35084.667969 37211.007812 95
40181.367188 35172.019531 37303.656250 93
40380.539062 35252.851562 37389.386719 93
40559.062500 35315.281250 37455.597656 93
40718.812500 35361.074219 37504.167969 94
40882.789062 35410.289062 37556.367188 94
41043.792969 35456.679688 37605.570312 95
41194.785156 35494.203125 37645.367188 97
41334.636719 35521.953125 37674.796875 96
41467.925781 35543.937500 37698.113281 96
41600.875000 35565.515625 37721.000000 95
41748.808594 35599.757812 37757.320312 95
41894.390625 35631.828125 37791.332031 95
42022.878906 35649.226562 37809.785156 95
42154.257812 35668.988281 37830.742188 95
42309.750000 35708.996094 37873.179688 95
42487.773438 35767.769531 37935.511719 95
42688.269531 35845.113281 38017.542969 96
42915.058594 35944.082031 38122.511719 97
43172.410156 36068.089844 38254.035156 100
43462.207031 36218.507812 38413.566406 103
43770.054688 36383.171875 38588.210938 103
44098.664062 36564.218750 38780.230469 104
44451.832031 36764.671875 38992.835938 104
44813.867188 36971.441406 39212.132812 105
45200.589844 37197.492188 39451.886719 104
45606.488281 37438.164062 39707.140625 104
46028.636719 37690.941406 39975.242188 102
46634.195312 38092.289062 40400.910156 108
47735.042969 38895.218750 41252.503906 111
49424.632812 40172.730469 42607.441406 118
52097.722656 42241.394531 44801.480469 123
55181.164062 44631.824219 47336.785156 131
57796.164062 46632.601562 49458.820312 134
60079.179688 48356.414062 51287.105469 141
62600.156250 50262.898438 53309.132812 140
65275.953125 52284.136719 55452.871094 146
67533.835938 53961.660156 57232.062500 146
69067.742188 55053.996094 58390.601562 149
70469.359375 56035.878906 59431.992188 151
71532.734375 56744.718750 60183.789062 151
72258.507812 57182.988281 60648.625000 153
72833.078125 57499.796875 60984.632812 153
73556.742188 57932.515625 61443.578125 152
74571.750000 58592.089844 62143.125000 151
78306.125000 61380.097656 65100.105469 153
84192.937500 65838.078125 69828.265625 159
90075.929688 70272.000000 74530.914062 205
93957.750000 73127.492188 77559.460938 217
-16266.208008 33650.718750 35582.332031 83
-16186.312500 33696.035156 35630.246094 85
-16082.013672 33690.800781 35624.714844 86
-15963.197266 33654.894531 35586.746094 88
-15855.586914 33642.304688 35573.433594 87
-15742.629883 33618.132812 35547.875000 88
-15628.867188 33591.914062 35520.152344 89
-15509.225586 33552.636719 35478.621094 89
-15380.407227 33492.859375 35415.410156 89
-15255.815430 33441.554688 35361.160156 89
-15161.426758 33456.214844 35376.660156 89
-15058.067383 33451.140625 35371.296875 90
-14946.319336 33427.242188 35346.027344 90
-14829.089844 33390.671875 35307.355469 90
-14713.175781 33356.582031 35271.312500 92
-14605.380859 33340.558594 35254.367188 92
-14493.698242 33315.375000 35227.738281 92
-14383.912109 33294.230469 35205.378906 93
-14277.952148 33281.703125 35192.132812 93
-14171.785156 33268.515625 35178.187500 93
-14059.652344 33241.035156 35149.128906 93
-13951.960938 33223.734375 35130.835938 92
-13844.122070 33205.828125 35111.902344 93
-13734.621094 33183.648438 35088.449219 94
-13626.517578 33164.539062 35068.242188 94
-13523.976562 33158.789062 35062.160156 94
-13420.203125 33149.906250 35052.769531 94
-13316.631836 33141.394531 35043.769531 95
-13213.726562 33134.421875 35036.398438 95
-13110.960938 33127.695312 35029.285156 95
-13007.668945 33119.527344 35020.648438 96
-12904.598633 33111.800781 35012.476562 97
-12801.828125 33104.726562 35005.000000 96
-12699.053711 33097.535156 34997.390625 96
-12596.195312 33090.003906 34989.429688 95
-12493.752930 33083.457031 34982.507812 96
-12390.798828 33075.437500 34974.027344 93
-12287.030273 33065.097656 34963.093750 95
-12183.502930 33055.242188 34952.671875 95
-12080.967773 33047.937500 34944.945312 95
-11978.551758 33040.835938 34937.441406 95
-11876.783203 33035.421875 34931.714844 95
-11775.508789 33031.300781 34927.359375 96
-11674.676758 33028.359375 34924.246094 97
-11573.901367 33025.527344 34921.253906 99
-11472.407227 33020.582031 34916.023438 96
-11370.803711 33015.230469 34910.363281 96
-11268.775391 33008.539062 34903.285156 97
-11166.469727 33000.906250 34895.218750 97
-11064.283203 32993.492188 34887.378906 97
-10962.349609 32986.707031 34880.203125 97
-10860.825195 32981.039062 34874.210938 97
-10758.682617 32973.371094 34866.101562 97
-10655.913086 32963.621094 34855.792969 97
-10553.442383 32954.617188 34846.273438 99
-10452.003906 32948.695312 34840.011719 99
-10349.775391 32940.148438 34830.972656 99
-10247.275391 32930.566406 34820.839844 99
-10144.846680 32921.019531 34810.746094 99
-10042.544922 32911.707031 34800.898438 99
-9940.304688 32902.410156 34791.066406 99
-9838.073242 32892.953125 34781.066406 99
-9735.422852 32881.886719 34769.367188 99
-9632.750000 32870.519531 34757.347656 99
-9530.539062 32860.503906 34746.757812 99
-9428.546875 32851.042969 34736.750000 99
-9326.490234 32841.152344 34726.292969 99
-9224.249023 32830.390625 34714.914062 99
-9121.897461 32819.000000 34702.871094 99
-9019.644531 32807.718750 34690.941406 99
-8917.656250 32797.156250 34679.773438 99
-8814.679688 32782.683594 34664.468750 100
-8711.298828 32766.365234 34647.214844 98
-8607.782227 32749.146484 34629.007812 98
-8504.317383 32731.734375 34610.593750 98
-8401.314453 32715.705078 34593.644531 98
-8297.780273 32697.205078 34574.082031 98
-8194.427734 32678.982422 34554.816406 98
-8091.490723 32661.992188 34536.851562 98
-7988.887207 32645.947266 34519.882812 98
-7886.697266 32631.210938 34504.300781 98
-7784.240234 32614.982422 34487.140625 98
-7681.880371 32598.748047 34469.976562 97
-7579.751953 32583.089844 34453.417969 97
-7477.655762 32567.158203 34436.570312 100
-7375.342773 32549.845703 34418.265625 99
-7272.580078 32530.054688 34397.339844 99
-7169.817383 32509.720703 34375.835938 100
-7067.379883 32490.314453 34355.316406 101
-6965.381348 32472.412109 34336.386719 102
-6863.890625 32456.396484 34319.453125 100
-6762.219238 32439.052734 34301.113281 99
-6660.607422 32421.486328 34282.539062 99
-6559.329102 32405.042969 34265.152344 98
-6458.430176 32390.005859 34249.250000 98
-6357.714844 32375.441406 34233.851562 98
-6257.056152 32360.712891 34218.277344 97
-6156.109375 32344.003906 34200.609375 97
-6055.222656 32327.076172 34182.710938 99
-5954.729004 32311.726562 34166.476562 99
-5854.282227 32296.123047 34149.980469 100
-5753.817871 32279.894531 34132.820312 100
-5652.955566 32260.832031 34112.660156 100
-5551.922852 32240.113281 34090.753906 101
-5451.218750 32220.597656 34070.117188 101
-5351.026367 32203.449219 34051.984375 102
-5250.171875 32181.611328 34028.894531 100
-5149.580078 32160.583984 34006.660156 99
-5049.499023 32142.001953 33987.011719 100
-4949.720215 32124.654297 33968.667969 100
-4850.246582 32108.630859 33951.722656 99
-4751.038574 32093.750000 33935.988281 100
-4651.865723 32078.490234 33919.855469 100
-4552.706055 32062.675781 33903.132812 102
-4453.759277 32047.703125 33887.300781 102
-4355.207520 32034.968750 33873.835938 102
-4256.796875 32022.722656 33860.882812 102
-4158.086426 32007.595703 33844.890625 103
-4059.242676 31990.699219 33827.023438 102
-3960.642578 31974.943359 33810.363281 102
-3862.274658 31960.322266 33794.902344 102
-3763.805908 31944.097656 33777.746094 100
-3665.383545 31927.417969 33760.109375 99
-3567.151367 31911.542969 33743.324219 97
-3469.106934 31896.509766 33727.429688 97
-3371.137695 31881.330078 33711.375000 97
-3272.859619 31862.251953 33691.203125 99
-3174.634277 31842.544922 33670.363281 99
-3076.607666 31823.660156 33650.394531 96
-2978.807373 31805.976562 33631.695312 95
-2881.344971 31790.839844 33615.691406 95
-2783.994873 31775.943359 33599.937500 95
-2686.768066 31761.437500 33584.601562 93
-2589.626709 31746.904297 33569.234375 92
-2492.565430 31732.275391 33553.765625 92
-2395.650879 31718.419922 33539.113281 91
-2298.595703 31701.464844 33521.187500 93
-2201.583740 31683.662109 33502.359375 95
-2104.730225 31666.623047 33484.343750 92
-2008.054321 31650.761719 33467.574219 91
-1911.543701 31636.048828 33452.015625 91
-1815.168091 31622.138672 33437.308594 90
-1718.922485 31609.074219 33423.492188 90
-1622.805786 31596.984375 33410.707031 90
-1526.810303 31585.888672 33398.976562 90
-1430.917114 31575.570312 33388.066406 89
-1335.114868 31565.929688 33377.871094 89
-1239.327393 31555.181641 33366.507812 89
-1143.581787 31543.798828 33354.468750 89
-1047.941406 31533.509766 33343.589844 88
-952.412476 31524.853516 33334.437500 89
-856.926514 31515.853516 33324.921875 88
-761.496521 31506.917969 33315.472656 88
-666.133423 31498.593750 33306.667969 89
-570.836365 31491.140625 33298.789062 88
-475.594696 31484.369141 33291.628906 88
-380.381592 31476.576172 33283.386719 86
-285.209259 31468.087891 33274.414062 83
-190.090256 31459.937500 33265.792969 83
-95.024422 31453.083984 33258.546875 82
0.000000 31447.695312 33252.851562 85
94.999100 31444.701172 33249.683594 85
189.977768 31441.320312 33246.109375 86
284.932739 31437.578125 33242.152344 88
379.878296 31434.929688 33239.351562 88
474.822968 31433.281250 33237.609375 88
569.728088 31430.000000 33234.136719 88
664.615173 31426.804688 33230.757812 85
759.498352 31424.244141 33228.054688 82
854.376770 31422.080078 33225.765625 80
949.257751 31420.431641 33224.023438 79
1044.174438 31420.160156 33223.734375 78
1139.113647 31420.550781 33224.148438 79
1234.068115 31421.271484 33224.910156 79
1329.053955 31422.632812 33226.347656 80
1424.095459 31425.039062 33228.894531 80
1519.198120 31428.410156 33232.457031 81
1614.357422 31432.488281 33236.769531 81
1709.546265 31436.656250 33241.175781 82
1804.755005 31440.732422 33245.488281 83
1900.015259 31445.251953 33250.265625 83
1995.251709 31448.966797 33254.195312 85
2090.532715 31453.015625 33258.476562 86
2185.860596 31457.386719 33263.097656 87
2281.192627 31461.447266 33267.390625 88
2376.516357 31465.078125 33271.230469 89
2471.931641 31469.591797 33276.003906 88
2567.372803 31474.089844 33280.761719 89
2662.831787 31478.476562 33285.398438 91
2758.297607 31482.638672 33289.800781 92
2853.687256 31485.683594 33293.019531 92
2949.015137 31487.871094 33295.332031 92
3044.364014 31490.140625 33297.730469 92
3139.746826 31492.613281 33300.347656 92
3235.110352 31494.750000 33302.605469 90
3330.419922 31496.257812 33304.199219 90
3425.717529 31497.568359 33305.585938 88
3521.029785 31498.943359 33307.039062 87
3616.324951 31500.093750 33308.257812 90
3711.577148 31500.820312 33309.023438 90
3806.829590 31501.515625 33309.761719 89
3902.284668 31503.810547 33312.187500 89
3997.831787 31506.722656 33315.265625 89
4093.437256 31509.947266 33318.675781 88
4189.102539 31513.474609 33322.406250 86
4284.765137 31516.828125 33325.949219 86
4380.414551 31519.939453 33329.242188 88
4476.056641 31522.869141 33332.339844 89
4571.782227 31526.248047 33335.914062 90
4667.599121 31530.109375 33339.996094 90
4763.340820 31533.316406 33343.386719 90
4859.151367 31536.845703 33347.117188 90
4955.018555 31540.597656 33351.085938 90
5050.908203 31544.351562 33355.054688 90
5146.825195 31548.130859 33359.050781 90
5242.820801 31552.250000 33363.406250 92
5339.069336 31557.714844 33369.183594 89
5435.539062 31564.269531 33376.117188 88
5532.069336 31570.947266 33383.175781 88
5628.518555 31576.943359 33389.515625 89
5724.893555 31582.330078 33395.214844 88
5821.267090 31587.529297 33400.710938 88
5917.628906 31592.503906 33405.972656 89
6013.974609 31597.230469 33410.968750 90
6110.311523 31601.769531 33415.765625 90
6206.654785 31606.195312 33420.449219 90
6303.049805 31610.748047 33425.261719 90
6399.521484 31615.546875 33430.335938 91
6496.032227 31620.392578 33435.460938 90
6592.531250 31625.041016 33440.375000 91
6689.001953 31629.423828 33445.007812 90
6785.631348 31634.421875 33450.296875 90
6882.331543 31639.607422 33455.777344 89
6978.924805 31644.166016 33460.597656 89
7075.281738 31647.542969 33464.167969 89
7171.410645 31649.826172 33466.582031 89
7267.549805 31652.091797 33468.980469 90
7363.641602 31654.095703 33471.097656 89
7459.645996 31655.677734 33472.769531 86
7555.545898 31656.781250 33473.937500 85
7651.336426 31657.404297 33474.597656 86
7746.978027 31657.404297 33474.597656 85
7842.523926 31657.015625 33474.187500 86
7938.003418 31656.375000 33473.507812 86
8033.416504 31655.486328 33472.570312 88
8128.765137 31654.367188 33471.386719 88
8224.071289 31653.113281 33470.058594 88
8319.443359 31652.136719 33469.027344 88
8414.914062 31651.552734 33468.410156 88
8510.475586 31651.320312 33468.164062 88
8606.180664 31651.621094 33468.480469 90
8701.867188 31651.847656 33468.722656 90
8797.526367 31651.968750 33468.847656 92
8893.184570 31652.085938 33468.972656 90
8988.868164 31652.291016 33469.191406 90
9084.559570 31652.517578 33469.429688 89
9180.222656 31652.644531 33469.562500 90
9275.813477 31652.517578 33469.429688 90
9371.356445 31652.234375 33469.128906 92
9466.916016 31652.011719 33468.894531 92
9562.495117 31651.857422 33468.730469 90
9658.057617 31651.656250 33468.519531 90
9753.416992 31650.794922 33467.609375 90
9848.714844 31649.753906 33466.507812 90
9944.199219 31649.326172 33466.054688 90
10039.863281 31649.472656 33466.210938 91
10135.477539 31649.462891 33466.199219 91
10231.091797 31649.451172 33466.187500 91
10326.833008 31649.830078 33466.585938 93
10422.695312 31650.570312 33467.371094 93
10518.488281 31651.085938 33467.917969 92
10614.043945 31650.888672 33467.707031 92
10709.412109 31650.138672 33466.914062 92
10804.700195 31649.166016 33465.886719 92
10900.005859 31648.261719 33464.929688 92
10995.366211 31647.533203 33464.160156 92
11090.826172 31647.099609 33463.699219 92
11186.308594 31646.738281 33463.316406 92
11281.817383 31646.453125 33463.015625 91
11377.405273 31646.396484 33462.957031 91
11473.064453 31646.537109 33463.105469 91
11568.950195 31647.294922 33463.906250 92
11665.118164 31648.802734 33465.503906 92
11761.360352 31650.488281 33467.285156 92
11857.458008 31651.761719 33468.628906 92
11953.442383 31652.716797 33469.640625 92
12049.284180 31653.277344 33470.234375 94
12145.167969 31653.943359 33470.937500 93
12241.217773 31655.023438 33472.078125 93
12337.377930 31656.373047 33473.507812 95
12433.507812 31657.625000 33474.828125 93
12529.801758 31659.269531 33476.570312 93
12626.220703 31661.203125 33478.613281 93
12722.590820 31662.988281 33480.503906 92
12818.817383 31664.392578 33481.988281 92
12914.971680 31665.597656 33483.257812 92
13011.369141 31667.376953 33485.140625 93
13108.139648 31670.031250 33487.949219 93
13205.009766 31672.884766 33490.964844 95
13301.636719 31675.121094 33493.332031 96
13398.003906 31676.708984 33495.011719 95
13494.368164 31678.267578 33496.656250 95
13590.750977 31679.849609 33498.332031 93
13687.253906 31681.685547 33500.269531 92
13783.908203 31683.843750 33502.554688 93
13880.624023 31686.113281 33504.953125 93
13977.666016 31689.091797 33508.101562 93
14074.964844 31692.607422 33511.820312 92
14172.282227 31696.117188 33515.531250 95
14269.415039 31699.171875 33518.761719 94
14366.319336 31701.677734 33521.410156 95
14463.455078 31704.660156 33524.566406 95
14560.794922 31708.044922 33528.144531 94
14658.139648 31711.400391 33531.691406 96
14755.317383 31714.351562 33534.812500 97
14852.349609 31716.953125 33537.566406 97
14949.468750 31719.705078 33540.472656 97
15046.875977 31723.031250 33543.992188 97
15144.421875 31726.605469 33547.769531 97
15241.875977 31729.943359 33551.300781 97
15339.309570 31733.197266 33554.738281 97
15437.229492 31737.410156 33559.195312 97
15535.315430 31741.910156 33563.953125 97
15633.370117 31746.291016 33568.585938 97
15731.404297 31750.578125 33573.121094 98
15829.435547 31754.806641 33577.589844 98
15927.630859 31759.312500 33582.355469 98
16025.989258 31764.085938 33587.402344 99
16124.322266 31768.753906 33592.339844 99
16222.402344 31772.871094 33596.691406 98
16320.106445 31776.207031 33600.218750 98
16417.582031 31779.062500 33603.238281 98
16514.992188 31781.757812 33606.089844 99
16612.453125 31784.521484 33609.011719 99
16710.037109 31787.484375 33612.144531 100
16807.777344 31790.710938 33615.554688 100
16906.115234 31795.025391 33620.117188 102
17005.125000 31800.544922 33625.953125 100
17104.628906 31806.921875 33632.695312 99
17204.330078 31813.591797 33639.750000 102
17303.986328 31820.107422 33646.640625 100
17403.996094 31827.195312 33654.136719 100
17504.091797 31834.365234 33661.714844 100
17604.476562 31841.978516 33669.765625 99
17705.166016 31850.052734 33678.304688 99
17805.494141 31857.398438 33686.070312 99
17906.328125 31865.562500 33694.703125 102
18007.253906 31873.800781 33703.414062 100
18107.798828 31881.283203 33711.328125 99
18207.904297 31887.917969 33718.343750 100
18307.896484 31894.283203 33725.074219 101
18408.242188 31901.193359 33732.378906 100
18509.064453 31908.855469 33740.480469 99
18609.953125 31916.550781 33748.621094 100
18710.560547 31923.687500 33756.164062 103
18811.083984 31930.609375 33763.484375 103
18912.441406 31938.869141 33772.218750 103
19014.619141 31948.421875 33782.320312 102
19117.333984 31958.775391 33793.265625 102
19220.173828 31969.234375 33804.324219 102
19322.845703 31979.308594 33814.976562 99
19426.005859 31990.089844 33826.378906 100
19529.369141 32001.093750 33838.015625 103
19632.748047 32012.017578 33849.566406 102
19736.095703 32022.783203 33860.949219 103
19839.365234 32033.316406 33872.085938 103
19943.166016 32044.599609 33884.019531 104
20047.255859 32056.240234 33896.324219 103
20151.535156 32068.068359 33908.832031 103
20255.884766 32079.894531 33921.339844 103
20359.962891 32091.179688 33933.269531 103
20464.732422 32103.443359 33946.238281 103
20570.242188 32116.746094 33960.304688 104
20676.060547 32130.404297 33974.746094 104
20781.443359 32143.261719 33988.343750 104
20885.792969 32154.408203 34000.128906 104
20990.607422 32166.162109 34012.558594 103
21096.130859 32178.890625 34026.015625 103
21201.931641 32191.925781 34039.800781 103
21307.263672 32204.130859 34052.707031 102
21411.751953 32214.953125 34064.148438 100
21516.888672 32226.652344 34076.519531 102
21622.339844 32238.714844 34089.277344 100
21727.732422 32250.580078 34101.824219 99
21832.763672 32261.806641 34113.691406 99
21937.263672 32272.150391 34124.632812 100
22042.361328 32283.283203 34136.402344 100
22147.589844 32294.503906 34148.265625 102
22252.572266 32305.269531 34159.652344 103
22356.992188 32315.126953 34170.074219 103
22460.494141 32323.580078 34179.011719 102
22564.611328 32332.841797 34188.804688 102
22669.115234 32342.574219 34199.097656 103
22774.066406 32352.859375 34209.972656 103
22879.339844 32363.509766 34221.234375 103
22984.277344 32373.599609 34231.902344 103
23089.804688 32384.427734 34243.351562 103
23195.298828 32395.121094 34254.660156 103
23300.095703 32404.755859 34264.847656 103
23404.136719 32413.259766 34273.839844 103
23507.865234 32421.265625 34282.304688 102
23612.955078 32431.070312 34292.671875 102
23718.902344 32441.968750 34304.195312 103
23825.005859 32452.990234 34315.851562 102
23930.937500 32463.689453 34327.164062 102
24036.808594 32474.220703 34338.300781 102
24144.175781 32486.675781 34351.468750 102
24252.835938 32500.765625 34366.367188 102
24361.925781 32515.312500 34381.750000 102
24470.785156 32529.437500 34396.687500 100
24579.544922 32543.318359 34411.363281 99
24689.515625 32558.683594 34427.613281 102
24800.097656 32574.730469 34444.578125 102
24910.060547 32589.841797 34460.558594 103
25018.853516 32603.310547 34474.800781 103
25127.074219 32615.929688 34488.140625 102
25235.359375 32628.533203 34501.468750 102
25344.777344 32642.494141 34516.234375 103
25455.689453 32658.267578 34532.910156 103
25566.990234 32674.416016 34549.984375 103
25676.980469 32688.769531 34565.164062 102
25788.470703 32704.917969 34582.238281 102
25901.037109 32722.302734 34600.621094 102
26013.630859 32739.587891 34618.898438 102
26125.652344 32756.027344 34636.281250 103
26237.449219 32772.058594 34653.234375 102
26350.843750 32789.960938 34672.164062 99
26465.662109 32809.492188 34692.816406 102
26581.189453 32829.753906 34714.238281 102
26696.406250 32849.480469 34735.101562 103
26810.488281 32867.671875 34754.335938 103
26925.900391 32887.355469 34775.148438 103
27042.652344 32908.523438 34797.531250 103
27159.710938 32929.906250 34820.140625 103
27275.851562 32950.023438 34841.414062 102
27390.705078 32968.449219 34860.898438 103
27505.953125 32987.210938 34880.738281 103
27622.710938 33007.644531 34902.343750 102
27740.451172 33029.097656 34925.027344 102
27857.529297 33049.613281 34946.722656 102
27972.958984 33068.035156 34966.199219 102
28089.785156 33087.968750 34987.277344 102
28207.802734 33109.160156 35009.683594 102
28325.755859 33130.125000 35031.855469 103
28442.394531 33149.410156 35052.246094 100
28557.535156 33166.820312 35070.656250 99
28673.480469 33185.042969 35089.925781 99
28790.285156 33204.125000 35110.101562 98
28908.070312 33224.207031 35131.335938 98
29025.878906 33244.171875 35152.449219 98
29141.808594 33261.855469 35171.148438 98
29257.150391 33278.753906 35189.011719 97
29373.066406 33296.179688 35207.441406 97
29489.320312 33313.875000 35226.148438 98
29604.582031 33330.328125 35243.550781 99
29717.917969 33344.511719 35258.546875 99
29833.707031 33361.339844 35276.343750 102
29950.160156 33378.796875 35294.800781 102
30065.775391 33395.207031 35312.152344 102
30180.345703 33410.347656 35328.164062 102
30294.546875 33424.984375 35343.636719 101
30408.429688 33439.171875 35358.640625 101
30523.031250 33454.050781 35374.375000 101
30637.923828 33469.152344 35390.339844 101
30751.957031 33483.214844 35405.214844 101
30864.742188 33495.835938 35418.554688 101
30977.074219 33507.878906 35431.292969 99
31090.582031 33521.117188 35445.289062 97
31203.300781 33533.417969 35458.296875 98
31313.330078 33542.757812 35468.171875 98
31422.492188 33551.113281 35477.007812 99
31533.304688 33561.171875 35487.640625 99
31643.535156 33570.546875 35497.554688 99
31750.808594 33576.734375 35504.101562 99
31855.333984 33579.984375 35507.539062 100
31959.671875 33583.019531 35510.746094 99
32064.763672 33586.824219 35514.769531 100
32170.025391 33590.785156 35518.957031 101
32276.589844 33596.074219 35524.546875 101
32384.357422 33602.578125 35531.425781 101
32490.484375 33607.343750 35536.468750 100
32597.078125 33612.562500 35541.988281 100
32703.277344 33617.343750 35547.039062 100
32808.101562 33620.687500 35550.574219 101
32911.691406 33622.746094 35552.753906 101
33015.148438 33624.660156 35554.777344 99
33123.351562 33631.378906 35561.882812 99
33230.042969 33636.527344 35567.324219 97
33332.933594 33637.804688 35568.675781 97
33434.218750 33637.464844 35568.316406 99
33535.796875 33637.417969 35568.269531 97
33640.476562 33640.476562 35571.500000 99
33744.812500 33643.171875 35574.347656 96
33848.792969 33645.496094 35576.808594 97
33953.718750 33648.746094 35580.246094 96
34058.519531 33651.851562 35583.527344 95
34162.394531 33654.023438 35585.824219 96
34267.902344 33657.789062 35589.808594 97
34374.207031 33662.316406 35594.593750 97
34479.496094 33665.820312 35598.300781 96
34584.429688 33668.957031 35601.617188 96
34689.394531 33672.109375 35604.949219 97
34796.105469 33676.933594 35610.050781 97
34903.992188 33682.863281 35616.320312 96
35013.128906 33689.960938 35623.824219 95
35126.191406 33700.781250 35635.269531 96
35245.867188 33717.867188 35653.335938 96
35370.828125 33739.898438 35676.628906 95
35499.304688 33765.140625 35703.324219 93
35629.949219 33792.300781 35732.042969 93
35761.628906 33820.285156 35761.628906 95
35900.550781 33854.933594 35798.269531 95
36045.035156 33894.621094 35840.234375 95
36195.812500 33939.980469 35888.199219 93
36351.820312 33989.976562 35941.062500 92
36507.550781 34039.433594 35993.359375 93
36670.347656 34095.183594 36052.308594 94
36838.453125 34155.539062 36116.128906 93
37002.343750 34211.664062 36175.476562 93
37157.023438 34258.984375 36225.511719 93
37309.265625 34303.796875 36272.898438 90
37457.933594 34345.085938 36316.554688 90
37615.792969 34394.550781 36368.863281 90
37775.222656 34445.175781 36422.394531 90
37927.648438 34489.152344 36468.894531 90
38084.789062 34537.164062 36519.660156 90
38238.648438 34581.945312 36567.011719 90
38394.089844 34627.914062 36615.617188 90
38548.035156 34672.281250 36662.535156 93
38695.937500 34710.992188 36703.464844 95
38840.382812 34746.398438 36740.902344 94
38969.343750 34767.796875 36763.531250 93
39103.585938 34793.781250 36791.007812 93
39269.285156 34847.542969 36847.855469 94
39448.429688 34912.914062 36916.980469 94
39577.144531 34933.429688 36938.671875 94
39751.058594 34993.621094 37002.316406 93
39942.914062 35069.242188 37082.281250 92
40130.367188 35140.613281 37157.746094 93
40305.375000 35200.734375 37221.320312 93
40468.761719 35250.421875 37273.859375 94
40635.066406 35302.378906 37328.800781 93
40797.238281 35350.488281 37379.667969 93
40950.851562 35390.945312 37422.449219 93
41095.210938 35423.218750 37456.574219 95
41230.648438 35447.648438 37482.410156 95
41367.355469 35473.042969 37509.261719 95
41511.027344 35504.261719 37542.269531 95
41647.250000 35528.968750 37568.394531 92
41768.093750 35540.460938 37580.546875 95
41891.085938 35553.718750 37594.566406 94
42033.980469 35583.753906 37626.324219 94
42199.382812 35632.640625 37678.019531 94
42379.921875 35694.031250 37742.933594 94
42570.773438 35763.773438 37816.679688 95
42779.433594 35848.082031 37905.828125 95
42989.851562 35933.437500 37996.082031 97
43199.429688 36017.660156 38085.136719 97
43407.898438 36100.539062 38172.773438 99
43615.171875 36182.011719 38258.921875 100
43816.550781 36258.195312 38339.480469 99
44056.683594 36365.988281 38453.464844 97
44326.714844 36497.867188 38592.910156 100
44613.484375 36642.835938 38746.199219 99
44951.187500 36828.820312 38942.859375 101
45415.699219 37117.519531 39248.132812 104
46005.468750 37506.921875 39659.886719 106
46926.550781 38163.851562 40354.527344 109
48197.203125 39101.164062 41345.640625 118
49567.636719 40114.640625 42417.292969 119
50719.898438 40947.039062 43297.472656 121
51974.656250 41857.937500 44260.656250 123
53897.511719 43301.156250 45786.722656 125
56095.976562 44958.277344 47538.964844 127
57851.894531 46253.566406 48908.605469 132
59394.339844 47372.355469 50091.613281 135
60507.074219 48143.851562 50907.394531 138
61111.660156 48508.296875 51292.761719 138
61338.617188 48571.968750 51360.085938 142
61537.898438 48613.472656 51403.972656 141
61955.937500 48827.179688 51629.949219 142
65239.082031 51292.484375 54236.765625 143
71954.828125 56438.503906 59678.175781 144
80624.539062 63089.175781 66710.609375 186
87906.164062 68624.859375 72564.046875 204
92187.500000 71797.796875 75919.117188 209
94353.484375 73312.210938 77520.468750 213
95341.835938 73906.671875 78149.046875 215
96215.070312 74409.320312 78680.546875 217
106641.773438 74469.257812 78743.921875 235
106518.773438 74226.765625 78487.515625 235
106613.445312 74136.656250 78392.234375 233
106677.093750 74025.406250 78274.593750 232
107323.695312 74318.289062 78584.296875 232
-16196.372070 33607.472656 35429.562500 85
-16116.186523 33651.406250 35475.882812 85
-16011.416992 33644.242188 35468.328125 86
-15891.804688 33605.601562 35427.589844 87
-15783.273438 33590.042969 35411.187500 87
-15670.473633 33565.144531 35384.941406 88
-15556.964844 33538.390625 35356.738281 88
-15439.785156 33503.324219 35319.769531 88
-15313.686523 33448.316406 35261.777344 88
-15189.976562 33397.832031 35208.554688 88
-15096.282227 33413.105469 35224.660156 89
-14993.789062 33408.980469 35220.308594 89
-14883.216797 33386.675781 35196.796875 90
-14767.577148 33352.625000 35160.898438 90
-14653.289062 33321.179688 35127.750000 92
-14546.407227 33306.257812 35112.019531 92
-14435.565430 33281.996094 35086.445312 92
-14327.004883 33262.695312 35066.097656 92
-14222.586914 33252.808594 35055.671875 92
-14117.815430 33241.949219 35044.222656 94
-14006.710938 33215.914062 35016.777344 94
-13899.860352 33199.664062 34999.648438 93
-13792.657227 33182.335938 34981.378906 91
-13683.629883 33160.328125 34958.179688 91
-13575.944336 33141.277344 34938.093750 91
-13473.879883 33135.765625 34932.281250 92
-13370.881836 33127.855469 34923.945312 93
-13267.920898 33119.925781 34915.582031 93
-13165.444336 33113.085938 34908.375000 95
-13063.162109 33106.640625 34901.578125 95
-12960.457031 33099.015625 34893.539062 95
-12857.921875 33091.707031 34885.835938 95
-12755.774414 33085.289062 34879.070312 97
-12653.761719 33079.125000 34872.574219 97
-12551.659180 33072.625000 34865.722656 93
-12449.757812 33066.558594 34859.324219 93
-12347.337891 33059.003906 34851.359375 95
-12244.020508 33048.898438 34840.707031 95
-12140.793945 33038.882812 34830.148438 93
-12038.443359 33031.101562 34821.941406 95
-11936.213867 33023.523438 34813.957031 96
-11834.673828 33017.746094 34807.863281 96
-11733.512695 33012.933594 34802.789062 96
-11632.764648 33009.210938 34798.867188 96
-11532.188477 33005.917969 34795.394531 97
-11430.961914 33000.691406 34789.886719 96
-11329.458984 32994.566406 34783.429688 96
-11227.623047 32987.351562 34775.824219 97
-11125.641602 32979.578125 34767.628906 96
-11023.789062 32972.054688 34759.695312 95
-10922.188477 32965.152344 34752.417969 97
-10821.089844 32959.652344 34746.621094 97
-10719.395508 32952.214844 34738.781250 97
-10617.009766 32942.496094 34728.535156 97
-10514.910156 32933.492188 34719.042969 97
-10414.006836 32928.097656 34713.355469 97
-10312.357422 32920.218750 34705.050781 99
-10210.404297 32911.207031 34695.550781 97
-10108.537109 32902.296875 34686.156250 99
-10006.827148 32893.730469 34677.125000 99
-9905.080078 32884.867188 34667.781250 99
-9803.351562 32875.886719 34658.312500 99
-9701.262695 32865.503906 34647.367188 99
-9599.173828 32854.902344 34636.191406 99
-9497.501953 32845.527344 34626.308594 99
-9395.982422 32836.484375 34616.777344 100
-9294.394531 32827.007812 34606.789062 99
-9192.537109 32816.371094 34595.570312 99
-9090.459961 32804.703125 34583.269531 99
-8988.471680 32793.105469 34571.046875 100
-8886.880859 32782.714844 34560.093750 99
-8784.389648 32768.734375 34545.355469 100
-8681.473633 32752.830078 34528.585938 98
-8578.405273 32735.982422 34510.824219 98
-8475.425781 32719.087891 34493.011719 98
-8372.915039 32703.623047 34476.710938 97
-8269.881836 32685.722656 34457.839844 99
-8167.081055 32668.324219 34439.496094 98
-8064.726562 32652.306641 34422.613281 98
-7962.687012 32637.185547 34406.671875 98
-7861.030762 32623.277344 34392.007812 99
-7759.089355 32607.818359 34375.710938 99
-7657.218262 32592.261719 34359.312500 97
-7555.543945 32577.152344 34343.382812 97
-7453.892578 32561.740234 34327.136719 100
-7352.077148 32545.195312 34309.691406 99
-7249.805176 32526.152344 34289.617188 100
-7147.488770 32506.386719 34268.781250 101
-7045.432129 32487.269531 34248.628906 100
-6943.781250 32469.511719 34229.906250 100
-6842.652832 32453.724609 34213.261719 99
-6741.315918 32436.476562 34195.078125 99
-6640.008301 32418.863281 34176.511719 99
-6538.992676 32402.171875 34158.917969 98
-6438.316895 32386.685547 34142.589844 99
-6337.817383 32371.621094 34126.710938 97
-6237.307617 32356.035156 34110.277344 99
-6136.416992 32337.945312 34091.207031 99
-6035.504395 32319.154297 34071.398438 99
-5934.949219 32301.691406 34052.988281 99
-5834.459473 32284.009766 34034.347656 100
-5733.886230 32265.259766 34014.582031 100
-5632.895020 32243.468750 33991.609375 100
-5531.834473 32220.507812 33967.402344 100
-5431.248535 32199.544922 33945.304688 99
-5331.215820 32181.158203 33925.917969 100
-5230.737793 32159.349609 33902.929688 102
-5130.654785 32139.197266 33881.683594 99
-5031.154297 32121.986328 33863.539062 102
-4931.966309 32106.134766 33846.828125 100
-4833.029785 32091.316406 33831.207031 99
-4734.278809 32077.154297 33816.277344 101
-4635.498535 32062.199219 33800.511719 103
-4536.639648 32046.048828 33783.484375 103
-4437.916504 32030.177734 33766.753906 102
-4339.601562 32016.615234 33752.457031 102
-4241.317871 32002.671875 33737.757812 102
-4142.740723 31985.812500 33719.980469 100
-4044.044678 31967.210938 33700.371094 100
-3945.582031 31949.591797 33681.796875 99
-3847.381104 31933.261719 33664.582031 100
-3749.111084 31915.509766 33645.867188 99
-3650.898926 31897.326172 33626.699219 97
-3552.897949 31880.058594 33608.496094 97
-3455.122314 31863.906250 33591.468750 97
-3357.450684 31847.818359 33574.507812 96
-3259.543457 31828.484375 33554.125000 95
-3161.710205 31808.720703 33533.289062 93
-3064.087646 31789.910156 33513.460938 93
-2966.712646 31772.535156 33495.140625 93
-2869.681152 31757.804688 33479.613281 92
-2772.752197 31743.232422 33464.250000 92
-2675.953613 31729.164062 33449.417969 92
-2579.246826 31715.183594 33434.683594 92
-2482.622559 31701.181641 33419.917969 92
-2386.152588 31688.107422 33406.136719 92
-2289.598877 31672.785156 33389.984375 90
-2193.098389 31656.896484 33373.234375 91
-2096.741699 31641.738281 33357.253906 90
-2000.546387 31627.685547 33342.437500 89
-1904.501343 31614.722656 33328.773438 88
-1808.585327 31602.648438 33316.042969 86
-1712.791992 31591.498047 33304.289062 86
-1617.110840 31581.224609 33293.460938 86
-1521.526611 31571.677734 33283.394531 87
-1426.024292 31562.671875 33273.902344 85
-1330.609497 31554.453125 33265.238281 85
-1235.207397 31545.294922 33255.582031 83
-1139.848022 31535.794922 33245.566406 83
-1044.585083 31527.478516 33236.800781 83
-949.407227 31520.320312 33229.253906 85
-854.273987 31513.218750 33221.765625 85
-759.188354 31506.316406 33214.488281 84
-664.157104 31500.023438 33207.855469 85
-569.177551 31494.490234 33202.023438 84
-474.238159 31489.412109 33196.671875 83
-379.317688 31483.367188 33190.296875 83
-284.428314 31476.734375 33183.304688 82
-189.578644 31470.054688 33176.261719 82
-94.771523 31464.144531 33170.031250 82
0.000000 31459.814453 33165.464844 83
94.751503 31457.498047 33163.023438 82
189.485779 31454.638672 33160.011719 86
284.199402 31451.400391 33156.597656 86
378.906860 31449.269531 33154.351562 85
473.616241 31448.119141 33153.136719 83
568.298035 31445.824219 33150.718750 83
662.972107 31443.818359 33148.605469 79
757.645935 31442.306641 33147.007812 76
852.312134 31440.847656 33145.472656 75
946.975769 31439.595703 33144.152344 76
1041.671997 31439.552734 33144.105469 76
1136.382690 31439.921875 33144.496094 76
1231.085571 31440.029297 33144.609375 76
1325.792847 31440.230469 33144.820312 76
1420.554688 31441.611328 33146.277344 78
1515.357056 31443.658203 33148.433594 78
1610.196777 31446.195312 33151.109375 78
1705.060181 31448.888672 33153.949219 79
1799.952148 31451.794922 33157.011719 80
1894.905762 31455.435547 33160.851562 82
1989.841431 31458.445312 33164.023438 82
2084.825439 31461.912109 33167.679688 83
2179.872803 31465.990234 33171.976562 85
2274.952637 31470.177734 33176.394531 85
2370.047119 31474.224609 33180.660156 85
2465.237549 31479.187500 33185.890625 86
2560.472412 31484.328125 33191.308594 86
2655.747314 31489.574219 33196.839844 87
2751.045166 31494.724609 33202.269531 90
2846.277344 31498.800781 33206.566406 89
2941.498291 31502.496094 33210.464844 90
3036.764893 31506.435547 33214.613281 90
3132.078613 31510.609375 33219.015625 92
3227.380371 31514.419922 33223.035156 90
3322.610107 31517.330078 33226.101562 90
3417.818115 31519.876953 33228.785156 90
3513.037842 31522.392578 33231.437500 90
3608.228760 31524.523438 33233.683594 90
3703.353271 31525.980469 33235.222656 90
3798.456787 31527.191406 33236.496094 90
3893.711670 31529.568359 33239.003906 89
3989.030762 31532.337891 33241.921875 89
4084.413086 31535.468750 33245.222656 88
4179.871582 31539.029297 33248.976562 88
4275.320312 31542.363281 33252.492188 88
4370.765625 31545.525391 33255.824219 88
4466.184570 31548.367188 33258.820312 88
4561.664551 31551.511719 33262.136719 88
4657.221191 31555.050781 33265.867188 89
4752.688477 31557.851562 33268.820312 90
4848.207031 31560.876953 33272.007812 90
4943.754883 31563.974609 33275.273438 90
5039.303711 31566.958984 33278.421875 90
5134.868652 31569.933594 33281.554688 89
5230.511230 31573.267578 33285.070312 89
5326.379883 31577.824219 33289.875000 89
5422.444336 31583.359375 33295.710938 88
5518.579590 31589.111328 33301.773438 86
5614.683105 31594.488281 33307.441406 88
5710.763184 31599.556641 33312.785156 88
5806.905762 31604.798828 33318.312500 88
5903.085449 31610.070312 33323.871094 88
5999.255371 31615.123047 33329.195312 90
6095.396484 31619.869141 33334.199219 90
6191.545898 31624.511719 33339.093750 90
6287.727539 31629.175781 33344.011719 90
6383.959961 31633.951172 33349.046875 91
6480.210449 31638.673828 33354.023438 90
6576.422363 31643.074219 33358.664062 90
6672.583984 31647.111328 33362.917969 92
6768.838379 31651.470703 33367.515625 92
6865.144531 31655.943359 33372.230469 92
6961.337891 31659.783203 33376.277344 92
7057.285645 31662.417969 33379.054688 89
7153.001465 31663.953125 33380.671875 89
7248.732910 31665.517578 33382.324219 89
7344.386230 31666.703125 33383.574219 89
7439.916504 31667.337891 33384.242188 88
7535.338379 31667.498047 33384.410156 86
7630.682617 31667.333984 33384.238281 86
7725.903809 31666.667969 33383.535156 85
7821.053711 31665.728516 33382.546875 88
7916.173828 31664.695312 33381.457031 89
8011.263184 31663.562500 33380.261719 89
8106.298340 31662.248047 33378.875000 88
8201.322266 31660.917969 33377.472656 90
8296.448242 31660.009766 33376.515625 89
8391.700195 31659.597656 33376.082031 88
8487.072266 31659.642578 33376.128906 86
8582.608398 31660.287109 33376.808594 89
8678.149414 31660.939453 33377.496094 90
8773.703125 31661.625000 33378.218750 92
8869.266602 31662.330078 33378.960938 90
8964.842773 31663.062500 33379.734375 90
9060.425781 31663.804688 33380.519531 88
9156.037109 31664.628906 33381.386719 90
9251.602539 31665.279297 33382.070312 92
9347.094727 31665.667969 33382.480469 92
9442.556641 31665.947266 33382.777344 90
9538.014648 31666.208984 33383.050781 89
9633.435547 31666.341797 33383.191406 90
9728.628906 31665.732422 33382.550781 90
9823.733398 31664.849609 33381.617188 90
9919.000000 31664.500000 33381.250000 90
10014.448242 31664.730469 33381.492188 90
10109.879883 31664.908203 33381.679688 92
10205.301758 31665.046875 33381.828125 92
10300.792969 31665.398438 33382.199219 92
10396.367188 31666.000000 33382.832031 92
10491.897461 31666.453125 33383.308594 92
10587.268555 31666.423828 33383.277344 92
10682.483398 31665.933594 33382.761719 92
10777.603516 31665.171875 33381.957031 92
10872.708984 31664.378906 33381.121094 93
10967.853516 31663.716797 33380.425781 92
11063.078125 31663.291016 33379.976562 90
11158.348633 31663.007812 33379.675781 90
11253.676758 31662.886719 33379.550781 90
11349.076172 31662.968750 33379.636719 90
11444.519531 31663.171875 33379.847656 93
11540.227539 31664.095703 33380.824219 93
11636.251953 31665.865234 33382.687500 92
11732.400391 31667.943359 33384.878906 92
11828.468750 31669.769531 33386.804688 92
11924.509766 31671.500000 33388.628906 92
12020.445312 31672.919922 33390.125000 93
12116.434570 31674.458984 33391.750000 93
12212.618164 31676.478516 33393.878906 95
12308.943359 31678.830078 33396.355469 95
12405.202148 31680.978516 33398.621094 95
12501.664062 31683.605469 33401.390625 96
12598.282227 31686.587891 33404.535156 93
12694.791016 31689.253906 33407.343750 92
12791.009766 31691.158203 33409.355469 92
12887.030273 31692.548828 33410.820312 93
12983.173828 31694.218750 33412.578125 93
13079.581055 31696.501953 33414.988281 92
13176.055664 31698.916016 33417.531250 92
13272.312500 31700.773438 33419.492188 95
13368.334961 31702.050781 33420.835938 93
13464.414062 31703.443359 33422.304688 93
13560.541992 31704.929688 33423.871094 92
13656.832031 31706.771484 33425.812500 92
13753.347656 31709.107422 33428.277344 92
13849.971680 31711.658203 33430.964844 91
13946.920898 31714.916016 33434.398438 92
14044.145508 31718.750000 33438.441406 92
14141.448242 31722.708984 33442.613281 93
14238.616211 31726.312500 33446.414062 93
14335.537109 31729.322266 33449.585938 93
14432.626953 31732.664062 33453.109375 93
14529.917969 31736.400391 33457.050781 95
14627.204102 31740.076172 33460.921875 96
14724.268555 31743.228516 33464.246094 97
14821.125000 31745.892578 33467.054688 97
14918.051758 31748.673828 33469.988281 97
15015.269531 31752.035156 33473.531250 97
15112.608398 31755.607422 33477.296875 97
15209.817383 31758.865234 33480.730469 97
15306.976562 31761.976562 33484.011719 97
15404.619141 31766.046875 33488.304688 97
15502.437500 31770.427734 33492.921875 97
15600.226562 31774.695312 33497.417969 98
15697.969727 31778.816406 33501.765625 98
15795.652344 31782.767578 33505.929688 98
15893.509766 31787.019531 33510.414062 98
15991.519531 31791.523438 33515.160156 99
16089.479492 31795.876953 33519.750000 98
16187.160156 31799.628906 33523.703125 98
16284.429688 31802.533203 33526.765625 98
16381.455078 31804.929688 33529.292969 98
16478.365234 31807.078125 33531.558594 100
16575.289062 31809.226562 33533.824219 100
16672.330078 31811.572266 33536.296875 99
16769.542969 31814.216797 33539.085938 99
16867.300781 31817.861328 33542.925781 99
16965.738281 31822.742188 33548.070312 100
17064.677734 31828.500000 33554.140625 100
17163.804688 31834.542969 33560.511719 100
17262.919922 31840.496094 33566.789062 100
17362.472656 31847.187500 33573.843750 99
17462.160156 31854.048828 33581.078125 98
17562.115234 31861.324219 33588.746094 98
17662.335938 31868.996094 33596.832031 100
17762.246094 31876.031250 33604.250000 100
17862.658203 31883.884766 33612.527344 100
17963.173828 31891.837891 33620.914062 99
18063.281250 31898.984375 33628.449219 99
18162.902344 31905.203125 33635.003906 100
18262.404297 31911.150391 33641.273438 100
18362.308594 31917.730469 33648.210938 99
18462.761719 31925.191406 33656.074219 99
18563.373047 31932.847656 33664.144531 102
18663.808594 31940.126953 33671.820312 102
18764.251953 31947.343750 33679.429688 103
18865.476562 31955.806641 33688.351562 102
18967.412109 31965.384766 33698.449219 102
19069.857422 31975.720703 33709.343750 103
19172.472656 31986.234375 33720.429688 103
19274.902344 31996.337891 33731.078125 102
19377.802734 32007.119141 33742.445312 102
19480.931641 32018.164062 33754.089844 100
19583.992188 32028.994141 33765.503906 100
19686.888672 32039.447266 33776.527344 102
19789.695312 32049.652344 33787.285156 102
19893.111328 32060.742188 33798.976562 103
19996.824219 32072.201172 33811.054688 103
20100.746094 32083.882812 33823.371094 103
20204.802734 32095.666016 33835.792969 103
20308.662109 32107.027344 33847.769531 103
20413.156250 32119.279297 33860.687500 104
20518.361328 32132.527344 33874.652344 105
20623.894531 32146.164062 33889.027344 104
20728.994141 32159.001953 33902.562500 104
20833.011719 32170.044922 33914.203125 103
20937.416016 32181.582031 33926.367188 103
21042.525391 32194.093750 33939.554688 103
21147.937500 32206.949219 33953.109375 102
21252.882812 32218.982422 33965.792969 100
21356.960938 32229.595703 33976.984375 100
21461.656250 32241.041016 33989.046875 102
21566.707031 32252.912109 34001.562500 100
21671.775391 32264.707031 34014.000000 99
21776.570312 32275.988281 34025.890625 101
21880.857422 32286.419922 34036.886719 103
21985.892578 32297.859375 34048.949219 102
22091.173828 32309.558594 34061.281250 103
22196.201172 32320.785156 34073.117188 103
22300.572266 32330.958984 34083.843750 103
22403.947266 32339.611328 34092.964844 102
22507.902344 32349.021484 34102.882812 102
22612.251953 32358.912109 34113.312500 100
22717.035156 32369.335938 34124.300781 100
22822.072266 32380.035156 34135.578125 102
22926.734375 32390.111328 34146.199219 102
23032.011719 32400.964844 34157.644531 102
23137.228516 32411.644531 34168.902344 102
23241.716797 32421.218750 34178.996094 102
23345.441406 32429.650391 34187.882812 103
23448.878906 32437.615234 34196.281250 103
23553.671875 32447.382812 34206.578125 102
23659.312500 32458.228516 34218.011719 103
23765.128906 32469.230469 34229.609375 102
23870.843750 32480.000000 34240.964844 102
23976.546875 32490.666016 34252.207031 102
24083.753906 32503.279297 34265.503906 102
24192.054688 32517.253906 34280.238281 100
24300.537109 32531.363281 34295.113281 102
24408.652344 32544.869141 34309.351562 100
24516.595703 32558.039062 34323.234375 100
24625.695312 32572.632812 34338.617188 102
24735.396484 32587.902344 34354.718750 102
24844.642578 32602.457031 34370.058594 102
24952.931641 32615.642578 34383.960938 103
25060.724609 32628.080078 34397.070312 102
25168.568359 32640.486328 34410.152344 102
25277.501953 32654.205078 34424.613281 103
25387.837891 32669.621094 34440.863281 103
25498.492188 32685.326172 34457.421875 103
25607.849609 32699.253906 34472.105469 103
25718.703125 32714.978516 34488.683594 104
25830.687500 32732.015625 34506.644531 102
25942.806641 32749.095703 34524.648438 102
26054.419922 32765.408203 34541.843750 102
26165.750000 32781.242188 34558.539062 100
26278.841797 32799.156250 34577.421875 100
26393.388672 32818.746094 34598.074219 102
26508.525391 32838.917969 34619.343750 102
26623.236328 32858.417969 34639.898438 102
26736.867188 32876.445312 34658.902344 103
26851.720703 32895.835938 34679.343750 103
26967.732422 32916.496094 34701.125000 103
27084.058594 32937.390625 34723.152344 102
27199.679688 32957.277344 34744.117188 102
27314.166016 32975.648438 34763.484375 102
27429.021484 32994.328125 34783.179688 102
27545.402344 33014.707031 34804.660156 102
27662.728516 33036.062500 34827.175781 99
27779.294922 33056.367188 34848.578125 99
27894.166016 33074.511719 34867.707031 100
28010.597656 33094.371094 34888.644531 99
28128.171875 33115.437500 34910.851562 100
28245.718750 33136.320312 34932.867188 100
28362.156250 33155.761719 34953.363281 99
28477.232422 33173.476562 34972.039062 99
28593.255859 33192.171875 34991.746094 98
28710.156250 33211.746094 35012.382812 98
28827.962891 33232.234375 35033.980469 97
28945.728516 33252.531250 35055.378906 97
29061.658203 33270.589844 35074.417969 98
29177.107422 33287.972656 35092.742188 98
29293.095703 33305.847656 35111.585938 97
29409.386719 33323.945312 35130.667969 98
29524.748047 33340.871094 35148.507812 100
29638.210938 33355.546875 35163.980469 100
29753.982422 33372.710938 35182.074219 100
29870.197266 33390.253906 35200.570312 100
29985.263672 33406.402344 35217.589844 102
30099.039062 33421.007812 35232.988281 102
30212.353516 33435.003906 35247.746094 99
30325.093750 33448.277344 35261.738281 100
30438.277344 33461.945312 35276.148438 101
30551.640625 33475.726562 35290.675781 100
30664.251953 33488.589844 35304.238281 100
30775.898438 33500.320312 35316.605469 101
